ply
format ascii 1.0
comment Author: CloudCompare (TELECOM PARISTECH/EDF R&D)
obj_info Generated by CloudCompare!
element vertex 1830
property float x
property float y
property float z
end_header
-3.83612 7.08906 3.32764 
-3.547 7.15996 3.39133 
-1.18112 7.57915 4.06839 
-1.00828 7.58595 4.05883 
-0.383901 7.70784 4.64459 
0.0852023 7.74903 4.86523 
0.503865 7.86755 5.62544 
2.13388 8.78531 11.8954 
2.40659 8.65047 11.3246 
3.13512 8.3224 10.0767 
3.18627 8.20947 9.45606 
-0.564684 8.99946 12.4288 
3.08184 8.19338 9.24887 
3.24734 8.17291 9.29881 
2.95542 8.06674 8.33746 
-1.61857 8.90005 12.2378 
-2.17056 8.76489 11.8029 
-5.08908 8.50563 13.7374 
-5.7306 8.40581 14.2879 
-5.4671 8.56209 14.7075 
-6.0161 8.32899 14.3846 
-5.92873 8.35097 14.3398 
-6.88633 8.11246 14.8552 
-7.58519 7.74598 14.2562 
-9.02385 6.61325 10.4923 
-9.06676 7.08321 8.13103 
2.37037 8.0184 7.48628 
-8.31818 6.75465 6.14839 
-7.43098 6.57229 4.63199 
-7.20235 6.35978 4.45612 
-6.23974 6.5366 3.98019 
-4.66646 6.94218 3.63221 
-3.73739 7.16197 3.65991 
-3.26144 7.24967 3.62125 
-2.11158 7.44528 3.78004 
1.03168 7.98299 6.4622 
2.71476 8.53924 10.9396 
2.5591 8.54066 10.8067 
2.92804 8.32616 9.88763 
3.08066 8.20699 9.33119 
-1.30439 8.89559 12.0537 
2.82312 8.19319 8.98106 
2.94339 8.10644 8.57161 
-1.9548 8.76576 11.6587 
-2.21265 8.68556 11.3721 
-2.52553 8.66421 11.4956 
-4.6044 8.51665 13.0426 
-4.78924 8.47353 13.0716 
-4.98137 8.46373 13.3185 
-5.57355 8.38216 13.854 
-5.81388 8.30092 13.8337 
-6.11797 8.25402 14.1563 
-6.85468 8.03538 14.4146 
-8.53366 7.06005 12.5614 
-8.97071 7.09651 8.26906 
-8.96836 7.0741 8.01298 
-7.37689 6.32847 4.69367 
-6.88191 6.41065 4.65836 
-6.41923 6.54353 4.47425 
-2.45752 7.45574 4.09364 
-1.40783 7.59714 4.28986 
-1.38723 7.58791 4.22591 
1.3656 8.83515 11.7318 
2.19259 8.63094 11.0486 
2.19812 8.61069 10.9317 
0.319169 8.95522 12.1266 
0.0441483 8.95504 12.1069 
2.74846 8.24808 9.24727 
2.72587 8.20824 8.98151 
2.44042 8.16937 8.48575 
-2.8834 8.61942 11.5552 
-3.26487 8.58101 11.7174 
-3.68699 8.53986 11.9557 
-4.21789 8.47695 12.2682 
-5.08906 8.35385 12.8605 
-5.40282 8.35353 13.3891 
-5.65352 8.26598 13.3273 
-6.31254 8.22027 14.3471 
-7.5893 7.68637 14.0297 
-7.35142 7.8156 14.2317 
-8.11135 7.36246 13.3783 
1.64612 8.09861 7.46341 
1.62679 8.14069 7.71229 
-8.78196 6.92103 7.46665 
-7.77191 6.50181 5.1541 
-7.34367 6.28818 4.8483 
-6.94827 6.408 4.82997 
-5.82393 6.72199 4.34152 
-5.3303 6.82178 4.0197 
-4.52908 7.01053 3.83269 
-3.05797 7.35575 4.05505 
-2.03898 7.53691 4.2923 
-0.514902 7.73106 4.79646 
-0.177114 7.81218 5.25542 
0.958266 8.86622 11.7441 
1.14636 8.85526 11.7543 
1.23853 8.81004 11.5237 
2.62677 8.37931 9.92753 
-0.815779 8.86517 11.6934 
-1.05052 8.83902 11.6171 
2.37149 8.22038 8.74461 
-2.17469 8.60996 10.9099 
-3.36051 8.4895 11.2881 
-4.71692 8.37657 12.4016 
-4.66656 8.39363 12.4259 
-5.57133 8.21535 12.8859 
-6.57787 7.96904 13.4642 
-6.66857 7.93166 13.4423 
-6.92545 7.90795 13.8645 
-7.22199 7.78836 13.8454 
-8.77613 6.73366 7.46831 
1.96664 8.13449 7.89402 
1.65032 8.15141 7.79282 
-8.72728 6.83994 7.24838 
-8.68363 6.6814 7.13361 
-7.87128 6.4204 5.34579 
-7.98802 6.33052 5.57546 
-7.62225 6.24825 5.42834 
-6.99311 6.42562 5.08073 
-5.29791 6.88504 4.35864 
-4.53797 7.0937 4.35096 
-3.43305 7.30515 4.15583 
-3.71655 7.23025 4.05274 
-3.05449 7.3808 4.19975 
-2.21584 7.5697 4.60067 
-0.876876 7.7726 5.14091 
-0.424833 7.85037 5.50506 
1.59286 8.73656 11.2691 
1.74123 8.67172 10.9835 
1.89314 8.6386 10.883 
2.1908 8.53187 10.469 
2.35562 8.45034 10.1141 
-0.198996 8.87937 11.6622 
2.16339 8.21913 8.56555 
-1.58477 8.70473 11.0822 
-3.54565 8.50471 11.5867 
-4.01265 8.43437 11.7513 
-5.28264 8.24177 12.536 
-6.89024 7.82375 13.313 
-7.50627 7.63703 13.6341 
-7.81365 7.4907 13.5047 
-8.51658 6.99235 12.3563 
1.68196 8.20961 8.17257 
-8.16751 6.38275 5.90254 
-8.14323 6.19019 6.02425 
-7.17675 6.39347 5.33002 
-6.38407 6.61739 4.88167 
-5.75616 6.78013 4.58349 
-5.21106 6.91585 4.38893 
-2.30842 7.54014 4.49001 
-0.679095 7.80844 5.30915 
-0.223945 7.89924 5.7842 
0.798192 8.1688 7.51491 
0.68009 8.86551 11.6576 
1.5775 8.66333 10.839 
1.71711 8.62996 10.7259 
2.11466 8.47556 10.0892 
2.03793 8.40784 9.63069 
-0.714211 8.81298 11.356 
-0.717491 8.84844 11.5657 
2.13184 8.31002 9.1062 
-1.72777 8.6046 10.5818 
-3.1041 8.50246 11.0976 
-4.61758 8.31269 11.883 
-5.735 8.04433 12.1986 
-5.5982 8.11518 12.3562 
-6.29099 7.9122 12.5199 
-6.99168 7.72527 12.9747 
-7.35564 7.6317 13.2759 
-7.86906 7.42839 13.3086 
1.82255 8.25597 8.5525 
1.35251 8.23511 8.14546 
-8.34719 6.33287 6.30618 
-7.80345 6.22702 5.84047 
-7.25371 6.39597 5.56743 
-5.79879 6.79741 4.78377 
-4.91396 7.03853 4.6286 
-4.13561 7.22439 4.56838 
-2.66762 7.54238 4.81321 
-1.00321 7.78137 5.23312 
-0.787362 7.84956 5.58105 
0.566246 8.77907 11.1214 
1.56725 8.61042 10.5285 
2.00873 8.42517 9.71347 
-0.463466 8.81953 11.3396 
-4.25027 8.36593 11.6668 
-4.97176 8.16791 11.5935 
-5.03601 8.18013 11.7684 
-5.47861 8.08104 11.9466 
-5.94808 8.0088 12.3962 
-6.35691 7.92431 12.7266 
-6.73675 7.78874 12.7617 
-7.25592 7.5796 12.7537 
-7.46941 7.55154 13.09 
-7.93862 7.32787 12.94 
-6.37928 6.6504 5.0879 
-4.56227 7.14525 4.71825 
-3.28201 7.43287 4.77795 
-2.95529 7.48285 4.72998 
-1.27767 7.78463 5.36282 
0.521164 8.10207 7.04339 
0.984778 8.7345 10.9818 
1.80922 8.51178 10.0996 
-0.204103 8.82946 11.3644 
-4.7096 8.17655 11.2336 
-5.53075 8.03112 11.7522 
-5.99831 7.85176 11.5792 
-6.53857 7.72094 11.9289 
-6.26787 7.84384 12.0746 
-6.75536 7.66423 12.0743 
-7.1311 7.56338 12.3603 
-7.88722 7.32139 12.7889 
-8.23467 7.1298 12.5382 
-8.99044 6.32142 9.33534 
-8.39193 6.1476 6.91379 
-8.20819 6.19861 6.83795 
-7.0108 6.54713 5.93623 
-7.05846 6.52266 5.90225 
-6.46448 6.67304 5.4357 
-5.32959 6.9827 5.01668 
-4.78531 7.14424 5.06225 
-2.41744 7.60417 4.98793 
-1.68481 7.72825 5.23231 
-1.09777 7.85876 5.73925 
-0.542742 7.94132 6.0808 
0.0883469 8.09117 6.93084 
0.21349 8.77228 11.0253 
1.46395 8.51273 9.91598 
1.37628 8.50468 9.82403 
-1.21714 8.60881 10.3511 
-2.23026 8.48729 10.2388 
-2.48286 8.47122 10.3432 
-3.85285 8.30036 10.7718 
-5.14438 8.06451 11.271 
-5.73881 7.90761 11.4126 
-6.36888 7.72038 11.5656 
-6.51675 7.68348 11.6623 
-7.43983 7.39435 12.1225 
1.22625 8.32644 8.65557 
0.96739 8.3117 8.4506 
-8.16347 6.27258 7.25885 
-8.69744 6.1995 7.4145 
-8.47073 6.18147 7.47704 
-7.21222 6.51224 6.22374 
-7.45184 6.42676 6.30258 
-5.20203 7.0568 5.25396 
-3.52881 7.43357 5.06974 
-2.15568 7.68183 5.25344 
-2.44212 7.64476 5.24414 
-1.4737 7.79253 5.50322 
-0.272209 8.03057 6.57698 
0.367995 8.20381 7.63224 
0.555988 8.22413 7.78831 
0.603044 8.74141 10.9061 
0.895928 8.65141 10.473 
-2.42922 8.46439 10.259 
-2.76791 8.42416 10.3102 
-3.69363 8.30966 10.6259 
-4.16113 8.22097 10.704 
-5.19974 8.007 11.0307 
-5.8156 7.86374 11.3016 
-6.59006 7.56019 11.0947 
-6.64331 7.54173 11.1042 
-6.96993 7.50573 11.6372 
-8.49469 6.85302 11.6498 
-8.50408 6.84269 11.6156 
-8.01463 6.32143 7.16231 
-5.74158 6.93445 5.50586 
-6.24238 6.79169 5.67559 
-5.14329 7.10048 5.41119 
-4.40462 7.26144 5.20013 
-1.08099 7.91409 6.06716 
-0.271683 8.04013 6.63441 
0.0498579 8.71404 10.6693 
-3.6168 8.28257 10.3759 
-4.59781 8.11954 10.7298 
-4.99836 8.05487 10.9744 
-6.43026 7.64996 11.2808 
-6.96163 7.46652 11.3838 
-7.62924 7.24529 11.725 
-7.81089 7.10194 11.3562 
-7.9398 7.04344 11.349 
-7.97576 7.09685 11.7469 
-8.24193 6.33627 7.90252 
-7.29997 6.55497 6.72636 
-6.29271 6.83811 6.08078 
-4.90035 7.16447 5.38139 
-3.3558 7.50813 5.31901 
-1.53308 7.85633 5.92077 
-0.778106 7.97087 6.3123 
-0.63015 8.02136 6.57792 
0.527382 8.65532 10.3894 
1.13516 8.46763 9.51225 
-3.31124 8.30398 10.1503 
-3.76514 8.23732 10.287 
-5.38627 7.84845 10.4214 
-6.72894 7.44697 10.7392 
-6.87409 7.40494 10.8235 
-7.20126 7.29594 10.9552 
-7.60735 7.10574 10.8512 
-8.34787 6.79243 10.9591 
-8.70174 6.59247 10.6993 
-7.63142 6.51223 7.32534 
-8.10192 6.40797 7.96459 
-6.83284 6.69408 6.42133 
-6.30585 6.85578 6.21244 
-5.95988 6.93077 5.92408 
-5.03328 7.1854 5.74062 
-3.88833 7.43701 5.54293 
-1.9716 7.79492 5.81914 
-1.0813 7.95333 6.3007 
0.433561 8.6499 10.3392 
0.817338 8.52613 9.75019 
1.00504 8.45868 9.40485 
-4.15001 8.13969 10.213 
-3.96108 8.16308 10.1025 
-5.07087 7.93219 10.3757 
-5.57276 7.79257 10.4272 
-5.51759 7.78517 10.2853 
-6.61559 7.43752 10.4316 
-7.40222 7.20879 10.9375 
-7.45812 7.13315 10.6336 
-7.59835 7.05209 10.51 
-8.8582 6.36313 9.70037 
0.472072 8.41072 8.92259 
-8.79728 6.2897 9.10406 
-8.38244 6.43438 8.92097 
-6.75654 6.73838 6.51403 
-6.14323 6.93755 6.3656 
-4.5086 7.32214 5.72753 
-4.32506 7.37049 5.7462 
-3.27514 7.60198 5.80365 
-0.659772 8.06028 6.82266 
0.0279184 8.6294 10.1716 
0.691897 8.56074 9.91115 
-0.677731 8.53638 9.77274 
-3.53257 8.21432 9.87679 
-6.1627 7.5702 10.2545 
-6.76025 7.36197 10.3072 
-7.08668 7.24707 10.3875 
-7.20711 7.20101 10.4053 
-7.30207 7.09188 9.995 
-7.71251 6.95306 10.2242 
-8.18023 6.77144 10.3982 
-8.02658 6.79073 10.0974 
-7.49359 6.58412 7.41404 
-8.26017 6.48337 8.8831 
-7.61295 6.63131 8.01961 
-7.67545 6.53621 7.58956 
-6.71684 6.81248 6.88377 
-6.09669 6.96948 6.46525 
-6.05257 6.99951 6.55244 
-3.90337 7.50493 5.97859 
-2.64627 7.72845 5.9375 
-1.69337 7.92474 6.42746 
-1.67116 7.91321 6.34704 
-0.0481964 8.62135 10.1257 
0.257717 8.59468 9.99742 
0.529266 8.56991 9.91947 
0.456563 8.50066 9.51501 
-0.3004 8.5615 9.82497 
-1.23098 8.48385 9.64489 
-2.13903 8.38984 9.59947 
-3.61992 8.18488 9.80458 
-3.95202 8.08617 9.63456 
-4.12773 8.06127 9.72095 
-4.723 7.96272 9.99626 
-5.06636 7.81418 9.67219 
-5.68858 7.70265 10.108 
-6.63841 7.33018 9.84652 
-6.98705 7.21119 9.94162 
-6.81326 7.25416 9.78925 
-7.40025 7.06758 10.0992 
-7.58933 6.97925 10.0547 
-7.80158 6.85439 9.87558 
-8.40936 6.58443 9.91313 
-6.81406 6.83205 7.2305 
-7.80733 6.59239 8.29598 
-6.38562 6.90658 6.69443 
-5.79468 7.08319 6.53647 
-4.07398 7.48822 6.11991 
-2.56578 7.76715 6.10669 
-2.17282 7.85805 6.3507 
-0.885552 8.07586 6.97762 
-0.336307 8.50595 9.52184 
-4.22387 8.01986 9.60317 
-4.99198 7.83212 9.6559 
-5.55972 7.64089 9.50479 
-5.76303 7.60875 9.68786 
-6.7358 7.21943 9.39669 
-7.25283 7.05773 9.66665 
-7.80091 6.61162 8.39685 
-7.35483 6.7693 8.18213 
-7.01275 6.84014 7.75221 
-5.48125 7.19506 6.62233 
-5.49858 7.19366 6.64639 
-1.13015 8.07328 7.04906 
-0.670118 8.14591 7.34236 
-3.17634 8.19177 9.33916 
-4.68873 7.89785 9.5597 
-4.63656 7.88264 9.38838 
-6.04215 7.47512 9.4467 
-7.45744 6.87873 9.11136 
-6.48578 6.96475 7.28318 
-5.79728 7.15514 6.99646 
-2.36108 7.86198 6.52138 
-1.29193 8.04326 6.94074 
0.0922566 8.41491 8.88607 
-0.535751 8.46662 9.31043 
-2.14776 8.34555 9.33707 
-2.98199 8.19902 9.1812 
-4.9649 7.73213 9.00747 
-5.48037 7.60014 9.11065 
-5.3929 7.60646 8.98792 
-6.57854 7.22059 9.05311 
-6.63028 7.00155 7.83438 
-7.30853 6.84829 8.54455 
-5.86974 7.20069 7.41384 
0.0771768 8.38373 8.69294 
-0.0206069 8.4364 9.01585 
-2.49887 8.27019 9.15823 
-5.0862 7.70622 9.05294 
-6.13464 7.30039 8.56564 
-6.41137 7.19729 8.53976 
-7.03907 6.98343 8.68631 
-6.00092 7.16307 7.45685 
-6.33022 7.09706 7.74878 
-5.65083 7.25994 7.3515 
-4.65562 7.45923 6.80969 
-2.00423 7.9617 6.85586 
-0.458548 8.24023 7.86807 
-0.589051 8.44239 9.16463 
-4.14457 7.87021 8.57831 
-5.46971 7.50526 8.51476 
-5.77939 7.37519 8.31439 
-6.45562 7.17593 8.5062 
-5.89007 7.20982 7.51489 
-6.0362 7.1754 7.6117 
-6.48004 7.09267 8.04455 
-4.90951 7.45692 7.21565 
-4.26341 7.57643 6.93579 
-1.97113 7.99633 7.04843 
-0.997415 8.15514 7.4984 
-0.744004 8.41496 9.03093 
-2.12525 8.29402 9.00594 
-2.26025 8.27276 8.97636 
-3.53762 8.04377 8.85545 
-4.00502 7.91821 8.6876 
-5.23346 7.53665 8.27396 
-5.41938 7.49338 8.34726 
-5.58697 7.31065 7.53819 
-5.1831 7.41095 7.40674 
-4.22478 7.60734 7.071 
-1.4498 8.0922 7.31516 
-0.266877 8.37 8.62556 
-2.82578 8.13627 8.64263 
-3.31681 8.03349 8.53415 
-4.45218 7.75503 8.32835 
-5.0568 7.57448 8.18691 
-5.48043 7.39542 7.85351 
-4.1969 7.66651 7.39697 
-3.00042 7.86677 7.15438 
-3.46749 7.99631 8.47883 
-4.11793 7.79551 8.08861 
-4.58693 7.59084 7.52232 
-4.61749 7.58252 7.51786 
-3.42303 7.8263 7.37341 
-2.72537 7.93512 7.29713 
-2.06746 8.03996 7.38705 
-1.01445 8.21739 7.88548 
-0.825233 8.24753 8.00525 
-1.19682 8.36238 8.86925 
-2.34403 8.19913 8.59402 
-2.63724 8.14811 8.52781 
-3.76299 7.86812 8.06142 
-4.40241 7.6766 7.76536 
-3.79858 7.79655 7.65532 
-2.18327 8.05684 7.57693 
-1.20773 8.20724 7.9038 
-0.793951 8.28959 8.25021 
-1.19155 8.34392 8.75225 
-2.07598 8.23188 8.58229 
-2.45854 8.16441 8.47417 
-3.48514 7.90118 7.9106 
-3.87751 7.83376 7.98951 
-4.14399 7.72618 7.69585 
-2.79781 7.96763 7.56985 
-1.09482 8.23606 8.03145 
-2.81737 8.00828 7.83658 
-2.28165 8.08722 7.84315 
-1.0784 8.28071 8.30315 
-2.32653 8.15075 8.27787 
-2.08981 8.10572 7.80627 
-1.58702 8.24599 8.34294 
-2.51101 8.06764 7.92403 
-1.87447 8.17301 8.07196 
-1.46714 8.23788 8.22422 
-10.7572 -6.00877 7.06009 
-10.5867 -5.96212 7.06212 
-10.8527 -6.64383 7.04543 
-10.499 -5.76836 7.06427 
-11.0513 -6.15281 7.0511 
-10.3996 -7.13142 7.02731 
-10.3356 -5.48601 7.06551 
-10.7709 -5.37724 7.06498 
-10.9949 -5.70634 7.05912 
-11.0576 -5.91675 7.05478 
-10.2206 -5.59278 7.06452 
-10.6535 -4.90234 7.06756 
-10.1476 -6.32311 7.05778 
-10.1523 -6.35051 7.05744 
-11.07 -5.46097 7.05884 
-11.2248 -6.20681 7.03938 
-10.1692 -7.13906 7.03021 
-11.0177 -6.98795 7.01942 
-10.1698 -4.37703 7.06681 
-9.99813 -4.33995 7.06392 
-10.8976 -4.38568 7.06659 
-10.9824 -4.41136 7.06505 
-10.0559 -6.74346 7.04971 
-10.6531 -7.33389 6.9794 
-10.0726 -4.28834 7.06518 
-10.0035 -5.64762 7.06162 
-10.054 -7.46036 6.97853 
-11.2761 -7.16814 6.93918 
-10.825 -3.40167 7.06786 
-9.79201 -6.51293 7.05077 
-11.0641 -4.00046 7.06415 
-11.3178 -5.29813 7.04484 
-10.1483 -3.39008 7.06615 
-10.1816 -2.82738 7.06713 
-9.66197 -6.2538 7.04807 
-11.1336 -3.57975 7.06279 
-10.6367 -3.02168 7.06873 
-9.60548 -6.59886 7.04174 
-11.1247 -3.15194 7.06278 
-9.71475 -4.10895 7.04843 
-10.3256 -2.5134 7.06838 
-10.7534 -2.19749 7.0678 
-10.8494 -2.60548 7.06721 
-11.4694 -5.88828 6.96837 
-9.43207 -7.46484 6.98028 
-10.7394 -7.49159 6.80877 
-9.50676 -6.35749 7.03042 
-11.4371 -6.39985 6.94743 
-9.43924 -1.6589 7.01978 
-9.57918 -4.26527 7.02179 
-10.5722 -1.98513 7.06861 
-10.346 -2.00879 7.06875 
-9.97548 -2.05668 7.06471 
-10.0177 -1.78347 7.0662 
-10.9225 -1.59753 7.06355 
-9.50372 -5.86539 7.02371 
-11.4081 -3.0913 7.04305 
-11.5003 -4.0403 7.02151 
-11.5271 -5.23239 6.96316 
-9.42423 -6.92558 7.01041 
-9.67628 -1.48289 7.05768 
-10.834 -1.31491 7.06426 
-10.1401 -1.7964 7.06786 
-9.82223 -1.55878 7.06327 
-9.36369 -6.93944 6.98693 
-11.0138 -7.46996 6.67907 
-10.5207 -1.12085 7.0681 
-10.1317 -1.28807 7.06824 
-9.4525 -5.54167 6.98935 
-9.38647 -6.28489 6.97943 
-11.519 -6.07726 6.84728 
-9.29464 -7.32463 6.9447 
-9.55791 -7.78098 6.62791 
-9.56887 -7.77373 6.65149 
-9.87616 -0.886476 7.06638 
-9.37248 -6.35286 6.97165 
-11.5675 -3.96982 6.98335 
-10.1882 -7.70376 6.36562 
-11.3461 -7.29146 6.46536 
-10.9958 -1.03103 7.05636 
-11.1809 -1.45343 7.0476 
-11.1223 -1.29801 7.05104 
-9.3985 -5.98602 6.9709 
-11.5342 -2.59181 6.98378 
-11.6049 -4.5659 6.90882 
-9.81717 -7.79339 6.19854 
-10.5445 -7.6534 6.07814 
-9.09764 -0.339857 6.89285 
-10.6858 -0.123277 7.06059 
-10.5293 -0.0689405 7.06454 
-9.99677 -0.190423 7.06869 
-9.72441 -0.175423 7.06604 
-11.2525 -1.45946 7.0378 
-9.346 -6.13247 6.92355 
-11.608 -3.85338 6.94238 
-9.99036 -7.74905 6.31799 
-10.7164 -7.60959 6.12884 
-11.3296 -7.3017 6.22389 
-9.29826 0.0739823 7.04856 
-11.087 -0.820727 7.04319 
-9.94295 0.0707727 7.06868 
-9.54807 -0.00632139 7.06312 
-11.6315 -3.91501 6.90084 
-9.82141 -7.81347 5.96961 
-10.7628 -7.6264 5.75424 
-11.342 -7.05198 5.7455 
-11.3404 -7.19433 5.97161 
-8.91299 0.611423 6.81226 
-9.02956 0.526217 6.98803 
-9.26715 -1.54356 6.81541 
-10.9543 -0.488893 7.04952 
-9.46311 0.642254 7.06395 
-9.37549 -5.19319 6.81602 
-9.36312 -5.46008 6.84539 
-11.6393 -3.19114 6.88388 
-11.6396 -4.41825 6.82408 
-11.5584 -5.79461 6.62109 
-9.19914 -7.42985 6.78562 
-10.2545 -7.73172 5.88616 
-9.85964 -7.83269 5.63945 
-11.2796 -7.33325 5.69975 
-9.37809 -2.47258 6.79782 
-10.3787 0.91458 7.06167 
-9.45044 0.775382 7.06423 
-11.3976 -6.86 6.08589 
-10.4554 -7.74066 5.16427 
-11.2622 -7.36786 5.68446 
-8.78731 1.20417 6.71472 
-9.34779 -2.25416 6.7071 
-9.28004 1.04408 7.06031 
-10.9046 -0.00585237 7.04009 
-10.0698 1.59631 7.06444 
-9.84692 1.07614 7.06901 
-9.47126 1.44389 7.06775 
-9.2699 1.38919 7.06317 
-11.6189 -5.0499 6.45369 
-9.37457 -7.84829 6.24065 
-10.3412 -7.76951 5.12617 
-11.328 -6.87484 5.39292 
-8.67652 1.8543 6.86629 
-9.21731 -1.31576 6.71771 
-8.8926 1.68447 7.02918 
-8.97886 2.03802 7.05575 
-9.32604 -5.77652 6.77481 
-11.6496 -2.96628 6.80475 
-11.6665 -4.29506 6.47971 
-9.23178 -6.89313 6.76028 
-10.3445 -7.77779 5.01556 
-11.3193 -6.71123 5.1407 
-8.87553 0.705575 6.61737 
-8.89437 2.20682 7.05149 
-10.7323 0.651724 7.0356 
-9.72807 2.38907 7.06642 
-9.58951 1.92849 7.06918 
-9.54657 2.25517 7.06882 
-9.32166 -5.62371 6.58984 
-11.6781 -3.93188 6.61034 
-11.6842 -3.75388 6.47001 
-11.5243 -5.90108 6.21349 
-11.6892 -3.52467 6.25745 
-8.48786 2.60946 6.86901 
-8.76464 2.47156 7.04352 
-9.42145 -3.56609 6.64004 
-8.89276 2.33885 7.05512 
-10.4452 1.39132 7.04536 
-10.9766 0.145453 6.99745 
-9.52842 2.59056 7.06817 
-9.31678 2.31907 7.06825 
-9.35829 -5.17448 6.65054 
-11.5031 -5.9822 6.08742 
-11.5473 -5.64903 6.16061 
-11.6897 -3.54872 6.20583 
-10.3456 -7.81655 4.56284 
-10.9552 -7.63072 4.49798 
-11.1656 -6.56896 3.94578 
-11.1788 -6.83391 4.25825 
-11.1491 -7.15347 4.39007 
-11.1631 -7.33657 4.71146 
-11.6814 -3.01777 6.26529 
-11.3821 -6.45998 5.50561 
-11.6619 -4.33505 6.05177 
-11.6569 -4.45392 6.14636 
-11.6895 -3.73737 6.09125 
-11.6873 -3.09151 6.18066 
-11.3428 -6.47278 5.11843 
-8.42362 2.69576 6.57404 
-8.41451 3.0492 6.95717 
-8.41418 3.01012 6.94367 
-9.3788 -4.70108 6.40777 
-9.35701 -5.06138 6.41113 
-9.72857 2.9139 7.05994 
-10.7185 1.0625 6.98921 
-9.07061 3.12854 7.06843 
-8.73154 1.40992 6.33814 
-9.04945 -0.353311 6.35433 
-8.5363 3.14389 7.03787 
-9.38608 -4.55423 6.34904 
-9.35057 3.41038 7.06583 
-9.15888 3.55414 7.06816 
-11.5974 -2.10187 6.45289 
-10.5007 -7.84235 3.90591 
-10.4841 -7.85628 3.81606 
-11.1028 -6.55121 3.67485 
-8.39993 2.76966 6.50079 
-8.16958 3.6477 6.90022 
-9.3604 -2.47079 6.26791 
-8.24406 3.49908 6.93301 
-9.40106 -3.0019 6.25837 
-10.4911 1.77869 6.98324 
-11.1416 -0.0749073 6.86583 
-11.2086 -0.325693 6.86732 
-11.3328 -6.21716 5.97048 
-11.567 -3.44914 6.05092 
-11.5589 -2.9883 6.02877 
-11.5132 -2.38783 6.08795 
-9.18788 -6.81244 6.09382 
-9.33818 -8.04389 4.37135 
-10.6901 -7.79507 3.56062 
-10.4726 -7.89384 3.49789 
-9.80609 -8.04605 3.66759 
-9.83451 -8.08044 3.38208 
-10.9969 -6.57335 3.49152 
-10.9212 -6.83694 3.16042 
-10.9716 -6.71971 3.25628 
-11.0768 -6.48778 4.09854 
-11.1005 -6.5702 4.31099 
-11.2109 -6.46034 5.0491 
-8.98966 -0.00248818 6.19148 
-8.73451 1.38628 6.2052 
-8.52843 2.28495 6.39361 
-9.34905 -2.35798 6.19944 
-9.34572 -5.12541 6.12147 
-9.13738 3.74234 7.06761 
-8.98685 3.69168 7.06902 
-11.5471 -1.72596 6.357 
-11.2824 -6.32912 5.63481 
-11.4232 -5.58331 6.08814 
-11.5669 -3.34668 6.14506 
-9.20524 -7.87644 5.26678 
-10.2921 -7.94573 3.50891 
-10.9642 -6.5973 3.63523 
-10.94 -6.61495 3.54107 
-11.1211 -6.51572 4.38402 
-9.17353 -1.12782 6.06925 
-8.94559 0.249273 6.05209 
-8.52816 2.27157 6.23813 
-8.04178 4.30135 7.0163 
-9.96762 2.91109 7.02792 
-10.8054 1.08737 6.86394 
-11.3681 -0.850242 6.57028 
-9.20533 -6.55572 5.97397 
-11.4099 -1.66043 6.12346 
-11.2834 -6.50906 5.82278 
-11.5328 -4.46738 6.24103 
-11.5617 -3.82973 6.35714 
-11.5564 -3.02277 6.29693 
-9.17815 -6.77086 5.53433 
-10.1034 -8.03731 3.19096 
-10.8756 -6.70861 2.93114 
-10.8835 -6.71096 2.95625 
-10.533 -7.7295 2.67405 
-9.34526 -1.51808 6.02828 
-8.49588 2.38089 6.13457 
-9.06874 4.30946 7.05908 
-9.64479 3.55976 7.03784 
-11.0387 0.331359 6.8372 
-11.2286 -0.327178 6.77712 
-11.3248 -0.67766 6.64081 
-11.3842 -1.52259 6.1959 
-11.2968 -6.66831 6.11877 
-11.5666 -3.25212 6.26638 
-9.70782 -8.19703 2.81993 
-10.6252 -7.21019 2.55313 
-10.6636 -7.2064 2.6533 
-10.8469 -6.68798 3.25454 
-10.8642 -6.67451 3.30659 
-10.7535 -6.92611 2.71094 
-9.3648 -1.77009 6.02833 
-8.87569 1.2692 6.02823 
-8.6485 2.05906 6.02887 
-11.073 0.261326 6.74419 
-8.67124 4.86227 7.06306 
-9.15505 -7.59434 5.86816 
-9.17196 -6.88535 5.3317 
-10.4081 -7.94213 2.63476 
-9.86673 -8.19876 2.54382 
-10.5497 -7.27239 2.39318 
-10.7805 -6.76988 3.08667 
-10.9953 -6.92374 4.04608 
-10.6076 -6.87729 2.30297 
-11.1819 -6.82334 5.14889 
-9.28928 -1.06524 6.03319 
-8.37511 2.81288 6.1696 
-8.33492 2.93123 6.11945 
-9.52344 -2.92517 6.10237 
-9.39522 -5.9747 6.10561 
-11.1812 -0.0875247 6.19378 
-11.1209 0.133541 6.08981 
-11.1458 -0.119951 6.02822 
-11.351 -6.55692 6.49935 
-9.298 -6.88973 5.69987 
-9.3348 -8.37424 2.33227 
-10.6598 -7.23764 3.0429 
-9.32782 -1.30114 6.18944 
-8.99202 0.707592 6.1988 
-8.62427 2.382 6.11708 
-7.57034 4.91654 6.60405 
-9.50151 -2.62107 6.11435 
-7.41824 5.30332 6.8256 
-7.65682 5.15979 7.01691 
-10.9023 0.838088 6.7367 
-10.9913 0.568021 6.61537 
-8.06476 5.32269 7.06879 
-11.5124 -4.83231 6.56279 
-11.5321 -4.44075 6.62503 
-11.5076 -2.45895 6.66413 
-9.09478 -7.96672 4.25702 
-9.1495 -7.49845 5.62167 
-9.16091 -7.11992 5.33513 
-9.16839 -6.92536 5.07868 
-9.29211 -6.97786 5.3007 
-10.0336 -8.19403 2.04052 
-10.2646 -7.90458 2.12574 
-10.7482 -7.23647 3.32204 
-11.2118 -6.97649 5.59904 
-11.0651 -7.13156 4.63523 
-9.0521 0.373576 6.28382 
-7.86131 4.23393 6.38016 
-7.95285 4.00471 6.24859 
-7.47636 5.12948 6.67664 
-9.48345 -2.45147 6.2966 
-9.52541 -4.26338 6.25158 
-8.91718 4.75437 7.04648 
-10.1825 2.77809 6.90778 
-10.7338 1.36743 6.74822 
-11.042 0.40862 6.54541 
-7.85355 5.4313 7.06564 
-10.8381 0.924562 6.02803 
-10.9302 0.353625 6.0482 
-10.9444 0.308139 6.1449 
-10.9963 0.117762 6.09905 
-11.3614 -6.5278 6.61466 
-9.29729 -6.95349 5.90795 
-8.76398 -8.54959 2.10188 
-8.84532 -8.46154 2.43181 
-9.10373 -8.02954 4.10129 
-9.16109 -7.04316 5.04684 
-9.03386 -8.49658 2.07765 
-10.5499 -7.39018 2.83311 
-9.18442 -0.408481 6.36591 
-9.43885 -2.04919 6.28725 
-9.11306 0.0219501 6.34512 
-8.52912 2.75149 6.37692 
-8.39488 3.17437 6.38822 
-8.41141 3.10493 6.20923 
-7.99526 3.89112 6.18647 
-7.29442 5.47931 6.62209 
-9.53887 -3.32553 6.33822 
-9.4474 -5.4802 6.30672 
-10.6598 1.61862 6.58908 
-11.5201 -2.72479 6.74566 
-9.29198 -7.05448 5.90367 
-9.13865 -7.51797 5.2042 
-9.12562 -7.44534 4.78433 
-9.15201 -7.10768 4.83853 
-9.06757 -8.58453 1.59695 
-10.1652 -7.58305 1.70325 
-10.1126 -7.42233 1.51217 
-10.3104 -7.4679 2.26797 
-10.2473 -7.19509 1.96471 
-10.9951 -7.18723 4.28916 
-10.2812 -7.09367 1.69032 
-8.76073 1.85774 6.41374 
-8.52871 2.76573 6.46748 
-7.31618 5.41849 6.53905 
-7.24508 5.66894 6.86313 
-7.2284 5.75405 6.91411 
-9.53559 -3.90346 6.42838 
-7.13834 6.02442 6.97043 
-7.83841 5.90953 7.06793 
-11.5459 -3.80945 6.73586 
-11.5463 -3.97643 6.71794 
-11.5334 -2.96788 6.74261 
-8.48634 -8.72907 1.55999 
-9.03019 -7.96904 3.95951 
-9.13944 -7.26482 4.82074 
-9.13927 -7.18902 4.65201 
-9.28017 -7.21807 5.34819 
-9.59134 -8.46423 1.26102 
-10.5737 -7.53866 3.01524 
-10.5666 -7.52734 2.98469 
-10.6479 -7.4541 3.17325 
-10.3381 -7.18661 2.16775 
-10.3701 -6.96181 2.11348 
-9.9973 -7.43091 1.29294 
-11.205 -7.18003 5.8438 
-9.23632 -0.717802 6.47824 
-9.23847 -0.734672 6.44862 
-9.39252 -1.70059 6.5418 
-8.66515 2.26175 6.42604 
-7.49226 5.0312 6.28928 
-7.13324 5.78667 6.60906 
-9.50446 -2.66521 6.42756 
-9.45246 -5.46781 6.4533 
-7.16108 6.11306 7.01374 
-10.4463 2.22951 6.39976 
-10.4592 2.19221 6.29665 
-10.3887 2.37736 6.06173 
-7.83621 6.05685 7.06365 
-10.832 0.680076 6.30914 
-11.1032 -0.277512 6.40384 
-8.51886 -8.63861 1.87955 
-8.94084 -8.09573 3.48511 
-8.96788 -7.98998 3.66996 
-9.11513 -7.2432 4.32595 
-9.72049 -8.18219 1.12634 
-9.54156 -8.32921 0.867718 
-8.4071 -8.84452 1.15407 
-9.79266 -8.00417 1.17139 
-9.85715 -7.82829 1.20983 
-9.88725 -7.7351 1.22487 
-9.83032 -7.60665 1.06001 
-10.0995 -7.38755 1.75276 
-9.53443 -4.01574 6.55738 
-9.53049 -4.32005 6.66043 
-6.86252 6.55469 6.97689 
-9.36197 -6.5971 6.56051 
-9.37868 4.33717 6.96556 
-7.4262 6.35283 7.0687 
-10.4344 1.89578 6.17739 
-10.6348 1.30709 6.3189 
-11.276 -7.13382 6.63167 
-11.1689 -0.647793 6.82077 
-9.1279 -6.98014 4.09759 
-9.21242 -7.59783 4.38829 
-9.44246 -8.30625 0.666909 
-8.46742 -8.92084 0.778615 
-10.8075 -7.4658 3.76223 
-10.0225 -7.22235 1.51314 
-9.96303 -7.27283 1.16447 
-8.95629 0.946735 6.61474 
-9.3974 -1.7008 6.66266 
-8.69612 2.17623 6.59708 
-8.40215 3.19822 6.64846 
-8.23599 3.67109 6.62337 
-8.02699 4.1861 6.52963 
-6.74173 6.5292 6.65703 
-9.51474 -4.61654 6.65832 
-10.7173 1.05732 6.45868 
-11.1276 -0.382453 6.59055 
-11.263 -1.01524 6.78241 
-11.4959 -2.61459 6.83873 
-11.515 -2.96733 6.83796 
-11.4207 -1.97767 6.84673 
-8.40283 -8.66172 1.79364 
-8.61142 -8.41736 2.42817 
-9.04679 -7.39396 3.80063 
-9.07654 -7.22212 3.86508 
-9.1876 -7.22833 3.73545 
-9.50686 -8.12636 0.702002 
-9.95997 -7.94056 1.76944 
-9.89111 -7.48158 1.38055 
-9.9609 -7.34558 1.44935 
-9.46354 -2.15048 6.71165 
-9.45506 -5.63519 6.71837 
-9.40864 -6.20098 6.70569 
-10.6779 1.17695 6.43595 
-8.01153 -9.05587 0.673534 
-8.52264 -8.5102 2.17571 
-9.04081 -7.69434 4.05586 
-9.05478 -7.25408 3.70386 
-9.40809 -8.2895 0.595618 
-9.33142 -8.14414 0.408928 
-9.41021 -7.95795 0.471857 
-9.73933 -7.8873 1.28315 
-9.93135 -7.22213 1.33638 
-8.91283 1.21516 6.71947 
-8.35142 3.36925 6.69952 
-7.51364 4.98548 6.03237 
-7.31876 5.34055 6.03996 
-9.54062 -3.14504 6.74584 
-9.87048 3.58287 6.76841 
-9.95176 3.4278 6.58673 
-10.3274 2.19206 6.37871 
-10.5894 1.44147 6.48871 
-11.0401 -0.159072 6.83616 
-8.83969 -8.03898 3.18003 
-9.27264 -7.62487 5.55236 
-8.95861 -8.59123 -0.0412963 
-8.47043 -9.12628 -0.0617916 
-8.21466 -9.21253 -0.101637 
-10.4159 -7.76262 2.78591 
-9.46012 -7.87386 0.767863 
-7.09271 6.13425 6.62101 
-7.25233 6.29106 6.94586 
-9.34053 -7.08966 6.75661 
-10.4659 1.81158 6.51081 
-10.6023 1.39451 6.60792 
-10.5983 1.40665 6.60775 
-10.7877 0.684831 6.86385 
-11.2924 -6.81391 6.87197 
-11.1733 -0.852024 6.89795 
-11.0357 -0.25825 6.88852 
-8.4203 -8.51751 2.05009 
-8.96421 -7.49467 3.37937 
-8.86432 -8.58967 -0.193378 
-7.8616 -9.31969 -0.15053 
-10.6574 -7.64891 3.49273 
-10.4729 -7.76247 3.00828 
-10.1783 -7.93581 2.3375 
-9.44303 -7.74614 0.68937 
-9.02057 -7.99117 -0.119346 
-9.47882 -2.22712 6.78294 
-9.54529 -3.0576 6.80061 
-9.55277 -4.25672 6.8323 
-8.35402 5.77983 6.99118 
-9.83601 3.67639 6.44462 
-9.99988 3.0211 6.35654 
-11.4168 -5.3499 6.89972 
-8.93335 -7.50368 3.24032 
-8.91543 -7.366 3.04307 
-9.07736 -7.37271 3.19059 
-9.12286 -7.89372 3.84921 
-8.48713 -9.06373 -0.614834 
-8.57166 -9.06385 -0.442647 
-7.41763 -9.5114 -0.441123 
-7.60858 -9.51051 -0.59976 
-7.73048 -9.46353 -0.547155 
-9.21438 -8.14007 0.451956 
-9.07541 -8.08604 0.209425 
-9.2132 -7.80244 0.337162 
-8.71247 2.23786 6.83767 
-7.4037 5.50365 6.42876 
-7.09342 6.07233 6.28996 
-7.26413 5.74104 6.22372 
-7.88685 6.12306 6.94142 
-9.66953 3.97977 6.11784 
-9.70639 3.91174 6.1546 
-11.2901 -6.66839 6.89155 
-11.3893 -5.71496 6.89933 
-10.816 0.43174 6.91151 
-8.05348 -8.844 1.25801 
-8.85562 -7.82947 3.1573 
-9.03467 -7.97093 3.43568 
-8.29017 -9.12755 -0.917003 
-8.45652 -9.12224 -0.619284 
-7.09354 -9.70905 -0.847245 
-8.66301 -8.42859 -0.53218 
-9.79241 -8.14938 1.57692 
-9.56649 -8.24429 1.14786 
-9.04675 -8.33837 0.247273 
-9.5086 -2.32233 6.85756 
-9.53808 4.23368 6.57167 
-9.51213 4.25596 6.05166 
-9.48779 4.16634 6.02742 
-9.63811 3.77354 6.15303 
-7.79543 5.5512 6.95514 
-11.166 -7.25232 6.76645 
-11.2779 -6.38877 6.91447 
-8.86601 -7.89068 2.76965 
-8.98124 -7.89042 3.18565 
-7.97083 -9.48453 -0.924024 
-7.46408 -9.69261 -1.11355 
-8.96859 -8.55891 0.203549 
-8.8414 -8.52412 -0.0207341 
-9.56306 -2.86747 6.87425 
-7.12802 5.98849 6.16294 
-7.09243 6.05225 6.14258 
-6.84774 6.50241 6.1486 
-9.42593 -6.53781 6.87358 
-9.39216 4.47179 6.28358 
-6.90166 -9.7005 -0.708515 
-8.76161 -7.34282 2.46108 
-8.88493 -7.56884 2.60325 
-7.95783 -9.30713 -1.37539 
-7.89618 -9.5472 -1.24537 
-6.98906 -9.89412 -1.37948 
-8.27796 -8.62332 -1.02957 
-8.36429 -8.49421 -0.929962 
-10.8574 -7.54321 4.42697 
-10.564 -7.72601 3.38397 
-8.82351 -7.96991 -0.194669 
-9.60074 -3.65127 6.89413 
-9.7414 3.58716 6.44745 
-11.3257 -2.77584 6.93914 
-11.0359 -0.671955 6.93395 
-10.5917 0.848614 6.93704 
-6.65259 -9.90255 -1.16072 
-8.67007 -7.70793 2.43862 
-8.6364 -7.59885 2.27842 
-8.76216 -7.86543 2.42877 
-7.97332 -9.07832 -1.38981 
-8.02293 -8.78884 -1.34675 
-10.291 -7.8902 2.81204 
-8.49516 -8.61547 -0.523089 
-11.0182 -7.39317 6.25079 
-9.46802 -6.49909 6.90473 
-8.70009 5.48083 6.81018 
-8.37437 4.60568 6.95728 
-8.50386 4.87879 6.95727 
-8.65328 4.76023 6.95507 
-11.3017 -4.1681 6.94409 
-11.2374 -1.74487 6.93602 
-10.6365 0.569303 6.94146 
-7.3255 -9.2556 0.196309 
-8.75121 -7.7431 2.32088 
-8.63103 -7.94225 2.13219 
-8.21343 3.99151 6.90882 
-8.93817 4.74864 6.92895 
-8.51285 5.45586 6.89774 
-9.25132 4.46426 6.27059 
-9.81034 3.41693 6.76055 
-11.2483 -2.84486 6.94597 
-10.6813 -0.0519266 6.94932 
-10.5817 0.602224 6.94541 
-10.6016 0.455397 6.94657 
-9.76784 2.89601 6.9472 
-6.42485 -9.96217 -1.41733 
-8.35607 -7.92028 1.79754 
-8.56645 -8.01884 2.01533 
-8.67327 -8.1047 2.33639 
-7.83597 -9.22829 -1.35585 
-7.79539 -9.4483 -1.31893 
-7.85426 -9.42791 -1.1309 
-6.94295 -9.77855 -1.40222 
-10.0514 -8.02705 2.39539 
-8.97461 -8.65319 0.279294 
-8.20837 -8.85317 -0.889098 
-8.21892 -8.58031 -0.913229 
-9.63527 -4.12039 6.92191 
-8.01066 4.52975 6.91937 
-8.14169 4.38593 6.93694 
-9.35689 -7.69731 6.43031 
-9.38964 -7.74476 6.03015 
-11.1177 -4.2941 6.95226 
-11.1321 -2.846 6.9511 
-10.6898 -0.107131 6.94957 
-10.1332 1.76134 6.95007 
-9.82858 2.65782 6.94919 
-8.03293 -8.48459 1.39581 
-8.42107 -7.53328 1.59371 
-7.74967 -9.42505 -0.921162 
-7.47219 -9.56971 -1.16413 
-7.89359 -8.64882 -1.32463 
-10.5087 -7.70505 3.93869 
-9.81513 -8.17516 1.89448 
-9.53262 -6.31234 6.92221 
-9.41421 4.13311 6.86764 
-9.32093 4.25553 6.89098 
-9.34119 4.11233 6.92509 
-8.60749 5.61626 6.74043 
-8.7708 5.16197 6.10677 
-8.9272 3.95816 6.95791 
-9.55198 3.84502 6.88609 
-11.0602 -4.84673 6.95209 
-11.0035 -3.22662 6.9545 
-10.7931 -0.844636 6.9526 
-10.5565 -0.316753 6.95463 
-10.5405 -0.128067 6.95406 
-10.1195 1.27386 6.95482 
-9.97161 1.99828 6.95317 
-6.72703 -9.67324 -0.685703 
-8.08037 -8.401 1.45915 
-8.19288 -7.7975 1.11745 
-8.27524 -7.88187 1.31643 
-8.27725 -8.22412 1.49427 
-7.60228 -9.44301 -0.831864 
-7.67936 -9.31455 -0.443844 
-9.58103 -8.32193 1.44592 
-9.70586 -2.75381 6.93777 
-9.6524 -4.98438 6.93426 
-9.57729 -6.20653 6.92938 
-9.57186 -6.52729 6.92764 
-8.57746 3.1775 6.93466 
-9.48744 -7.16281 6.90627 
-9.10933 4.65992 6.8373 
-8.59361 5.63954 6.66092 
-8.64671 5.33381 6.13376 
-8.85442 3.73665 6.958 
-8.98255 3.89586 6.95767 
-9.32631 3.97535 6.94177 
-10.8732 -4.5661 6.95596 
-10.9817 -5.69699 6.94882 
-10.81 -2.2158 6.95653 
-10.7311 -1.50317 6.95607 
-10.6701 -0.85305 6.95482 
-10.3728 0.1067 6.95619 
-9.41167 3.17857 6.95614 
-9.23755 -8.01638 3.76741 
-7.01471 -9.52137 -0.625688 
-7.98222 -8.09373 1.12837 
-8.13538 -7.7524 1.05217 
-8.30988 -7.84096 1.36252 
-7.38001 -9.43939 -0.617605 
-9.86356 -8.03335 2.76431 
-9.7656 -2.87473 6.94361 
-9.25986 0.507655 6.94175 
-9.6082 -6.3706 6.93175 
-8.84515 2.5061 6.94414 
-9.41369 4.17757 6.78998 
-8.44568 5.59998 6.11569 
-8.79084 3.29165 6.95388 
-9.0166 3.42643 6.95828 
-9.40694 -7.8364 5.01738 
-10.7785 -4.42426 6.9572 
-10.7065 -2.41117 6.95755 
-10.547 -1.11835 6.95736 
-10.4991 -0.828621 6.95729 
-10.4634 -0.57084 6.95719 
-10.4213 -0.476519 6.9573 
-9.91091 1.01884 6.95812 
-10.0219 0.935443 6.9576 
-9.76826 1.72392 6.95781 
-9.53401 2.74363 6.95714 
-7.90258 -8.32229 1.08597 
-7.88926 -8.05974 0.945299 
-8.07847 -7.95389 0.976604 
-8.14541 -8.49564 1.34928 
-8.73213 -8.84266 -0.0170359 
-8.35017 -9.07043 -0.237844 
-7.79419 -9.23808 -0.275841 
-10.3963 -7.6825 4.47607 
-10.302 -7.73034 4.22688 
-9.07429 -8.6379 0.53711 
-10.5315 -7.51427 6.23013 
-10.4905 -7.56986 5.62601 
-10.4201 -7.59812 5.45381 
-9.78462 -2.91982 6.94496 
-9.25864 0.997233 6.94801 
-8.67811 3.16783 6.94614 
-8.44261 5.62051 6.79156 
-8.42747 5.83346 6.1751 
-8.70404 5.26441 6.22766 
-9.2047 3.03845 6.95855 
-10.7022 -4.17591 6.95792 
-10.8072 -4.22203 6.95738 
-10.4562 -5.74709 6.95403 
-10.459 -6.33997 6.94721 
-10.6582 -2.74468 6.95796 
-10.6119 -3.07325 6.95827 
-10.6252 -2.11629 6.95781 
-10.3374 -0.974076 6.9583 
-10.2552 -0.0451583 6.95765 
-10.0209 0.380422 6.9584 
-6.34839 -9.85447 -1.13837 
-7.73861 -8.10083 0.701636 
-7.85173 -9.11911 0.0997942 
-7.85389 -9.13951 0.0246906 
-9.25462 -8.52136 0.940561 
-10.3382 -7.63389 5.2174 
-9.90014 -4.68639 6.95037 
-9.78406 -6.31082 6.94166 
-9.00461 2.23872 6.94929 
-8.89544 2.79871 6.95231 
-9.66841 -7.58423 6.77536 
-9.14285 4.64172 6.65279 
-10.4078 -4.83765 6.95734 
-10.4062 -5.72988 6.95397 
-10.3569 -6.16792 6.94969 
-10.0883 -6.99325 6.93079 
-10.3505 -3.41883 6.95771 
-10.0595 -0.0484143 6.95859 
-10.0285 -0.224903 6.95822 
-9.48766 1.97779 6.95818 
-9.30618 -8.07802 3.33158 
-9.22262 -8.12774 3.13109 
-6.57416 -9.70492 -1.01501 
-7.60451 -8.13132 0.261119 
-8.06792 -9.02193 0.260005 
-10.0302 -7.87335 3.58309 
-10.2995 -7.69522 4.58492 
-10.2015 -7.71862 4.58034 
-9.28994 -8.38915 1.61458 
-10.0214 -6.62546 6.94253 
-9.10107 2.12646 6.95276 
-9.05979 2.34714 6.95319 
-9.15438 2.30717 6.95512 
-10.3138 -4.00166 6.9576 
-10.4492 -5.0712 6.95723 
-10.2796 -4.92591 6.95663 
-10.1705 -5.73811 6.95298 
-10.1339 -6.42577 6.94585 
-10.1041 -7.58027 6.45313 
-10.2766 -2.12642 6.95772 
-7.59251 -9.03448 0.450223 
-9.62306 -8.0663 2.95551 
-8.67401 -8.62369 1.25969 
-8.82945 -8.58712 1.24773 
-9.29865 -8.47092 1.16402 
-10.1132 -2.71836 6.95538 
-10.1446 -3.06468 6.95572 
-10.0578 -1.51116 6.95702 
-9.86294 -1.22495 6.95442 
-9.71337 -7.67284 6.32778 
-9.296 -8.16376 2.83541 
-7.62392 -8.77936 0.518636 
-9.63865 -7.98771 3.44474 
-8.91138 -8.48652 1.62379 
-6.38717 -9.66831 -0.998497 
-7.21105 -8.29327 -0.0725469 
-7.02624 -8.89994 -0.380772 
-6.72805 -9.19634 -0.538294 
-6.74592 -8.86695 -0.573695 
-6.7974 -8.57319 -0.566707 
-6.74127 -8.62423 -0.631343 
-7.01318 -8.72967 -0.439702 
-6.68231 -8.98173 -0.643102 
-6.57452 -8.99348 -0.791288 
-6.89041 -9.19741 -0.516476 
-6.81838 -9.31991 -0.608092 
-6.33119 -9.41487 -1.06784 
-6.42888 -8.98979 -0.987133 
10.8028 -5.56117 7.06341 
10.4516 -5.80198 7.06435 
10.5798 -6.76951 7.04605 
10.9178 -5.20441 7.06373 
10.3777 -6.22107 7.05969 
10.3641 -6.04667 7.0619 
10.4041 -5.29319 7.06676 
10.2512 -6.95717 7.04229 
10.8756 -7.0447 7.02165 
10.5872 -7.0254 7.03257 
11.1973 -5.07452 7.05653 
10.9909 -4.42721 7.06487 
10.0816 -6.32613 7.05743 
10.1494 -6.75585 7.04921 
10.0032 -5.36126 7.06276 
11.113 -4.45073 7.06257 
11.0591 -4.03119 7.06423 
10.2706 -3.98313 7.06793 
9.97395 -5.90825 7.06015 
9.92619 -5.44128 7.06121 
11.3264 -6.69638 6.99823 
10.7847 -3.6227 7.06807 
10.5309 -3.94349 7.06921 
9.84445 -7.24577 7.02293 
11.4188 -6.19987 6.98324 
11.3794 -5.48106 7.03124 
11.3548 -6.73173 6.97957 
11.1517 -3.85818 7.06191 
9.71994 -6.54653 7.04765 
9.65216 -6.68972 7.04367 
9.70505 -7.45507 6.99084 
10.8522 -7.36833 6.92752 
11.2092 -3.68824 7.05945 
10.574 -3.27341 7.06911 
9.67169 -5.31108 7.04868 
9.6074 -7.49122 6.98241 
9.78147 -7.63474 6.88279 
10.8131 -2.5532 7.06769 
10.1077 -2.59988 7.0661 
9.59876 -5.50332 7.0416 
9.73976 -4.33323 7.05178 
9.7925 -2.39634 7.05767 
9.65418 -2.63107 7.04443 
9.72549 -2.73742 7.05126 
10.0378 -7.61343 6.85714 
11.4287 -6.50167 6.94327 
10.827 -2.241 7.0669 
10.3571 -2.15833 7.06872 
9.51627 -6.22578 7.03159 
10.423 -1.9824 7.06916 
9.93711 -1.948 7.06432 
9.62737 -4.28612 7.03545 
10.6137 -7.5277 6.79225 
11.5477 -5.33639 6.93198 
10.143 -1.87059 7.06782 
9.84535 -1.528 7.06377 
9.88124 -1.95302 7.0633 
9.39013 -6.99609 7.00117 
9.54891 -2.94675 7.00985 
10.6025 -7.58774 6.5862 
11.4655 -6.64476 6.84556 
10.4827 -1.15221 7.06833 
9.55746 -1.02389 7.05571 
11.4642 -6.67708 6.82984 
11.5539 -3.19198 6.99155 
10.1161 -0.899051 7.06855 
9.73107 -0.817894 7.0639 
9.28027 -1.13005 6.97217 
10.6685 -7.58086 6.52398 
11.4034 -1.99019 7.01964 
10.3134 -0.203824 7.06813 
9.42522 -2.40406 6.94004 
9.57966 -0.682633 7.05945 
9.45872 -0.550457 7.05481 
11.5473 -5.91965 6.69135 
11.4602 -6.7804 6.64124 
10.4731 0.0685662 7.065 
9.86014 -0.052645 7.06808 
9.68904 -0.486168 7.06428 
9.33139 -6.30371 6.92123 
9.51203 -0.171976 7.06044 
10.3918 -7.66946 6.27534 
11.1144 -7.48705 6.34665 
11.6296 -3.56426 6.91173 
10.3609 0.763357 7.0635 
11.3353 -1.51299 7.01675 
10.2278 0.42698 7.06777 
10.2234 -7.72618 6.03827 
9.66251 -7.83397 6.07214 
11.3392 -7.26421 6.16646 
11.4049 -1.74135 6.99972 
10.0322 0.544995 7.0687 
9.73122 0.737042 7.06832 
9.5308 0.629001 7.06533 
9.4858 0.708649 7.0647 
9.43479 -4.19842 6.86387 
9.11223 0.50586 7.02668 
9.07877 0.306507 6.99585 
10.9392 -7.57043 5.91717 
10.3029 -7.71348 5.98785 
9.55834 -7.85223 6.05921 
11.3478 -7.09873 5.87092 
10.4416 0.999394 7.05726 
9.35956 -2.16128 6.84831 
9.29763 0.838616 7.05907 
8.83728 1.00922 6.80942 
11.1398 -7.50084 5.88891 
9.50053 -7.83754 6.29556 
11.3945 -6.75285 5.93208 
10.0654 1.12925 7.06753 
10.4335 1.03069 7.05718 
9.50063 1.39673 7.06786 
9.39676 1.54071 7.06678 
9.36813 1.21707 7.06458 
9.15135 -0.887937 6.74785 
9.03732 1.3823 7.04612 
10.9248 -7.60302 5.45984 
11.0747 -7.54023 5.69482 
10.1711 -7.7863 5.40667 
11.2681 -7.38111 5.84001 
11.6676 -3.76879 6.76846 
11.3986 -6.57333 5.78602 
10.1945 1.60348 7.06024 
9.52402 2.07532 7.0692 
9.28729 -6.15608 6.70828 
9.37554 -5.09625 6.78577 
10.9294 -7.61029 5.29314 
10.0285 -7.81846 5.38094 
11.1919 -7.44626 5.35137 
11.2376 -7.32622 5.26502 
11.6887 -3.54848 6.28751 
11.3026 -6.81061 5.08789 
9.86201 1.89979 7.06694 
10.0363 2.08922 7.05995 
10.2799 1.69355 7.05368 
11.3206 -0.973239 6.94405 
11.492 -1.67647 6.88412 
9.65242 2.17684 7.06825 
9.65509 1.98009 7.06863 
9.21177 1.61107 7.06299 
9.4116 -3.17087 6.66973 
8.7985 1.12462 6.66697 
8.98341 1.81678 7.05152 
9.82403 -7.89231 5.01109 
9.42845 -7.91017 5.56619 
11.6815 -3.32095 6.64652 
11.6916 -3.32986 6.08125 
10.8484 0.49591 7.01525 
11.239 -0.682582 6.95941 
9.46608 2.63708 7.06848 
9.25699 2.7638 7.06887 
9.04766 2.31496 7.06322 
9.24963 -6.45959 6.56768 
9.29364 -1.8863 6.56432 
9.20645 -1.29615 6.58087 
8.63703 2.22937 6.94643 
10.247 -7.81828 4.79901 
11.1812 -7.26012 4.71839 
11.5841 -5.20216 6.01231 
11.6614 -2.8083 6.57253 
11.6828 -3.13393 6.48257 
11.2764 -6.60867 4.68724 
9.58112 2.91175 7.06522 
9.84475 2.69051 7.05832 
9.31311 2.86137 7.06904 
9.35059 -5.1973 6.53008 
9.41188 -3.90813 6.52308 
9.22922 -1.44631 6.53973 
9.09895 -0.643255 6.50803 
8.80661 1.04315 6.49549 
8.56647 2.23835 6.77545 
8.50658 2.40576 6.62997 
10.7316 -7.72099 4.50851 
9.81771 -7.94771 4.46122 
9.88634 -7.93475 4.44091 
9.47128 -7.98115 4.77645 
11.1676 -6.70547 4.07535 
11.6772 -3.45007 6.02881 
11.6715 -2.83631 6.21243 
11.3443 -0.919672 6.88165 
11.2941 -0.676852 6.86785 
11.5971 -2.13656 6.60029 
9.05045 -0.347327 6.46846 
8.6397 3.27773 7.05677 
8.57745 3.39635 7.05534 
8.33769 3.07335 6.8269 
8.39244 2.86664 6.76984 
9.52731 -8.01803 4.36055 
9.35442 -7.94174 5.24884 
9.17489 -7.127 6.33825 
11.5754 -3.39393 6.02822 
11.5769 -1.90955 6.21988 
9.51266 3.32241 7.06241 
10.3273 1.95396 7.03032 
11.5465 -1.81012 6.74723 
8.9862 3.39299 7.06855 
8.72601 3.46894 7.06438 
9.32311 -5.46343 6.27025 
9.2728 -1.76003 6.39058 
8.79102 3.04453 7.06138 
8.29803 3.38233 6.94784 
8.26054 3.28119 6.78874 
8.71218 1.48994 6.25042 
9.83057 -7.98107 4.13184 
9.59494 -8.05922 3.92999 
9.18605 -7.69841 6.32305 
11.0472 -7.25266 3.98475 
11.0591 -6.90853 3.73424 
11.617 -2.24509 6.37373 
11.194 -6.44064 4.3944 
11.0539 0.238161 6.87288 
9.41553 -3.32002 6.2208 
9.39232 -2.80682 6.25798 
9.26513 -1.70658 6.33559 
8.52964 3.68468 7.059 
10.4037 -7.89138 3.70456 
10.4862 -7.86499 3.72251 
9.40538 -8.06952 4.11591 
11.0195 -6.92799 3.58965 
11.0468 -6.83219 3.61673 
11.5678 -3.24907 6.09217 
11.4479 -1.77742 6.02832 
11.0937 0.116762 6.85054 
9.11116 -0.742158 6.15761 
9.11717 -0.779071 6.17282 
8.94975 0.228618 6.13826 
8.16065 3.5187 6.62928 
11.4245 -5.74044 6.32223 
11.4159 -1.35879 6.02839 
11.2464 -6.49778 5.43563 
11.0792 0.214961 6.79618 
11.346 -0.758919 6.59031 
9.06402 -0.452098 6.11734 
8.7673 1.2162 6.13966 
8.25585 3.20765 6.4468 
8.4897 2.4115 6.23726 
9.70529 -8.13357 3.22669 
10.6957 -7.78931 3.51149 
11.4174 -5.83949 6.36665 
11.5148 -4.76244 6.36219 
9.37377 3.88428 7.05395 
8.52409 4.24667 7.06772 
9.36198 -4.95756 6.02572 
8.10184 4.31803 7.03769 
7.98595 4.25897 6.97018 
10.5121 -7.88968 2.92075 
9.24632 -8.05573 4.28022 
10.8073 -6.97062 2.90302 
10.8385 -6.77788 3.28964 
11.3638 -6.39176 6.43266 
11.5614 -3.59979 6.45415 
11.5464 -2.87971 6.397 
11.3148 -1.15022 6.08837 
11.4044 -1.63619 6.32087 
11.5229 -2.51057 6.4485 
8.41397 4.78972 7.06923 
9.52418 -3.19196 6.02837 
9.30379 -1.59286 6.02833 
9.16306 -0.535872 6.02839 
9.12287 -0.465204 6.02848 
8.37932 2.80452 6.2201 
9.38859 -8.24009 3.03148 
10.6547 -7.31758 2.70186 
9.16618 -7.06935 5.81169 
10.7364 -6.90145 2.65001 
11.5626 -3.40924 6.46788 
11.1888 -0.305701 6.02825 
11.4822 -2.1933 6.50786 
8.81703 4.71627 7.05969 
11.1446 0.0465796 6.36584 
8.06448 4.95092 7.06404 
9.54507 -3.41182 6.06694 
9.14718 -0.189062 6.09102 
9.05224 0.36641 6.14799 
9.26111 -6.74799 5.48666 
8.081 4.81943 7.0619 
8.06559 4.6257 7.05357 
8.69645 2.12385 6.18532 
9.21502 -8.39742 2.36841 
10.0422 -8.15038 2.51494 
10.3036 -7.99813 2.39281 
10.7395 -6.7286 2.78789 
10.7878 -7.02859 3.29238 
11.3835 -6.31632 6.62278 
11.5519 -3.07757 6.5725 
11.2572 -0.905534 6.30023 
11.3881 -1.54998 6.39188 
10.6626 1.55538 6.8105 
11.0024 0.542742 6.48076 
11.0358 0.434467 6.05277 
8.14374 5.10294 7.06824 
9.53667 -3.91268 6.17266 
9.00001 0.66269 6.11651 
7.70994 5.25161 7.04423 
9.36753 -8.35023 2.423 
9.07596 -8.31448 2.9684 
10.0364 -8.1281 2.68712 
10.3914 -7.80467 2.3642 
9.15444 -7.38681 5.82969 
9.16613 -7.01373 5.31441 
10.4711 -7.30127 2.22562 
10.6998 -7.16938 3.1189 
9.29662 -6.88074 5.19661 
11.3599 -6.55584 6.6458 
11.5516 -3.83685 6.67181 
11.0344 -0.0221223 6.11572 
11.1862 -0.603065 6.3524 
11.4405 -1.90232 6.66978 
10.2697 2.59724 6.88038 
10.8795 0.94739 6.55071 
11.0234 0.470421 6.54934 
10.8273 0.693333 6.05443 
8.12997 5.44602 7.0681 
9.46767 -2.29409 6.31273 
8.77884 1.75959 6.22907 
9.86658 -8.27078 2.07029 
9.06173 -8.20873 3.4303 
10.3741 -7.43465 2.07679 
10.3958 -7.24366 2.0184 
10.3743 -7.31107 2.00653 
9.16395 -6.98652 5.00937 
10.3483 -7.17787 1.87376 
10.3782 -7.08897 1.89284 
10.5247 -6.87239 2.27618 
11.2624 -0.936622 6.49399 
10.6391 -7.39947 3.10041 
9.55722 3.94517 6.99404 
7.70022 5.64674 7.06423 
9.49377 -4.86842 6.3115 
9.36051 -6.42807 6.27097 
9.53468 -3.99939 6.25104 
9.23535 -0.725588 6.3158 
9.29622 -6.96264 5.86518 
8.1319 3.51709 6.03127 
8.1264 3.53154 6.03151 
8.21217 3.35648 6.0305 
8.32743 3.38001 6.38019 
9.4252 -8.45406 1.76602 
10.3079 -7.33203 1.86966 
10.4648 -7.07783 2.4037 
8.04135 5.75356 7.06407 
10.8116 1.16947 6.20594 
10.706 1.0925 6.19317 
7.63031 5.97534 7.06817 
9.49286 -4.8967 6.3978 
9.53991 -3.645 6.40864 
9.52228 -2.93827 6.42907 
9.2872 -1.03 6.49911 
9.25253 -0.828177 6.39647 
8.92899 1.05943 6.45386 
7.42644 5.72704 7.03524 
8.17759 3.48608 6.0303 
8.37376 3.25484 6.49347 
9.05606 -8.58148 1.62656 
9.93172 -8.18459 1.60373 
10.0753 -7.50714 1.47736 
10.3301 -7.2845 2.20532 
11.5165 -4.39359 6.81546 
11.2534 -0.905333 6.56871 
10.3327 2.25078 6.02824 
10.4754 1.78011 6.04854 
10.5007 1.70669 6.13151 
7.41202 6.25754 7.06723 
9.44188 -5.658 6.55022 
9.53124 -4.1579 6.46937 
8.75335 1.91014 6.54602 
8.49914 2.87001 6.49175 
7.34253 6.13568 7.05762 
7.15376 6.09329 7.00342 
7.08118 6.19689 6.99326 
6.96053 6.14073 6.71736 
6.83644 6.36691 6.70608 
9.21503 -8.60247 1.30754 
8.9375 -8.62229 1.57517 
8.89611 -8.64635 1.51105 
9.44566 -8.5027 1.47315 
9.38893 -8.53278 1.40421 
9.50753 -8.49414 1.3994 
9.90015 -7.45904 1.12372 
10.3 -7.26573 2.12424 
10.3873 -7.62872 2.56229 
9.27696 -6.93013 4.42098 
10.9693 0.215256 6.43533 
11.2557 -1.00218 6.80202 
7.82731 6.12144 7.0611 
8.23271 5.70154 7.05008 
10.5443 1.94789 6.67421 
10.4533 1.84456 6.17282 
9.48224 -5.14829 6.5988 
9.54169 -3.73145 6.61055 
9.52233 -2.90806 6.56108 
9.52382 -2.92821 6.5808 
7.18273 6.34157 7.05271 
8.14009 3.93112 6.65019 
8.92469 -8.75299 0.985676 
8.30136 -8.90935 0.991063 
8.47593 -8.66601 1.79418 
9.60764 -8.23397 0.94078 
9.96058 -7.33458 1.18002 
11.3041 -6.93541 6.82369 
11.342 -1.51561 6.85263 
11.1087 -0.312363 6.59115 
9.64704 3.95851 6.89009 
10.2897 2.64257 6.51556 
10.2645 2.694 6.0681 
10.4925 1.73621 6.38029 
10.5474 1.56983 6.3079 
9.33068 -6.98501 6.59609 
9.4954 -2.51923 6.67071 
9.25646 -0.802666 6.66296 
8.39275 3.23302 6.67469 
6.9237 6.1753 6.58352 
6.9805 6.03946 6.4215 
8.05264 4.07385 6.11728 
8.05589 4.08068 6.24785 
8.80739 -8.79857 0.924899 
8.52229 -8.81204 1.17848 
8.21717 -8.90684 1.06909 
8.54149 -8.59191 2.02087 
8.76152 -8.38327 2.66011 
9.3109 -8.62234 1.0305 
9.09857 -7.51467 4.45752 
9.51603 -7.90637 0.629198 
9.23374 -7.14449 4.0684 
11.2706 -1.11419 6.84369 
11.1693 -7.29567 5.81897 
10.0091 3.28366 6.7624 
10.4474 1.86202 6.21583 
9.49747 -5.0921 6.75352 
8.85172 1.53106 6.73945 
7.96184 4.32527 6.44158 
7.99936 4.28814 6.69667 
8.0078 4.27407 6.71293 
8.6563 -8.92344 0.565467 
8.5476 -8.94888 0.582178 
9.26853 -8.58298 0.518969 
9.06745 -7.60454 4.20959 
9.51851 -7.9779 0.662111 
9.05982 -7.1994 3.68319 
9.90952 -7.95367 1.66401 
9.21215 -7.02537 3.70564 
10.9256 0.16519 6.88409 
11.1275 -7.33452 5.51426 
10.5588 -7.6799 3.13294 
7.79418 6.24003 6.9986 
9.05869 0.429416 6.72821 
8.19403 3.81107 6.72398 
7.61527 4.96064 6.02887 
7.72883 4.72853 6.02877 
7.79925 4.69395 6.43952 
9.15659 -8.30208 0.177788 
9.28912 -7.86225 0.248238 
9.8309 -7.29288 1.18408 
9.71137 -7.56058 1.08088 
9.80435 -7.70433 1.3202 
9.85995 3.61335 6.08151 
10.5114 1.67307 6.56891 
9.3057 -7.51396 6.67333 
9.29515 -7.54031 6.55255 
8.69383 2.2527 6.78088 
6.97849 6.34365 6.6102 
6.96012 6.05208 6.26228 
7.61219 5.04341 6.0855 
8.54655 -8.37715 2.36695 
8.72831 -9.00095 -0.117932 
8.97385 -7.46345 3.40829 
9.45921 -7.55672 0.501655 
9.40535 -7.54458 0.529203 
9.26681 -7.59895 5.34288 
9.14172 -7.60557 3.79032 
11.446 -2.76002 6.91176 
11.1061 -0.646806 6.91094 
10.7984 0.726273 6.79031 
10.9251 -7.48814 4.47212 
10.9135 -7.4859 4.35906 
7.68986 5.95109 6.95823 
9.83931 3.66853 6.63141 
9.79143 3.76091 6.39777 
10.6913 1.11045 6.70795 
7.66962 5.70937 6.95378 
9.52741 -4.69225 6.80792 
8.36381 3.37086 6.78418 
7.17442 6.04889 6.81247 
7.25253 5.79787 6.44752 
6.79036 6.36883 6.29083 
7.50787 5.33712 6.63848 
8.59238 -8.3281 2.48464 
8.96454 -8.55547 -0.0444876 
8.98043 -7.3681 3.35296 
9.50247 -7.51115 0.701437 
9.402 -7.78712 0.634892 
9.40311 -7.85805 0.662286 
9.67024 -8.14421 1.28868 
9.1627 -7.86174 4.0718 
11.4379 -4.88117 6.90805 
7.81015 5.73137 6.95806 
9.71392 3.91094 6.53011 
9.12241 0.200881 6.84861 
7.28052 5.78473 6.64953 
7.21208 5.85964 6.36101 
7.48336 5.37942 6.60866 
7.82175 -9.41231 -0.450032 
7.46691 -9.50111 -0.444363 
7.21232 -9.60953 -0.609586 
7.91668 -8.96823 0.962227 
8.76319 -8.54834 -0.360293 
8.85631 -8.20675 -0.303548 
8.9419 -8.0005 -0.230735 
9.02108 -7.555 3.10276 
9.27331 -7.68918 5.41732 
9.0272 -7.74519 3.28258 
8.26062 5.33782 6.95618 
8.14162 6.05234 6.99275 
9.07432 4.95079 6.81925 
9.53492 4.21909 6.07677 
9.50508 4.02648 6.14579 
10.2849 2.27897 6.74384 
9.39825 -6.72878 6.85149 
9.2223 -0.38579 6.85465 
7.62669 -9.54464 -0.739643 
8.7851 -7.99443 2.98909 
